ply
format ascii 1.0
element vertex 1099
property float x
property float y
property float z
property uchar red
property uchar green
property uchar blue
end_header
-1.9950150 1.1002482 0.3866660 106 104 101
-1.9950150 1.1185857 0.3866660 106 104 101
-1.9950150 1.1369232 0.3866660 107 105 102
-1.9950150 1.1552607 0.3866659 107 105 102
-1.9950251 -1.1787209 0.3669969 108 106 103
-1.9950251 -1.1603034 0.3669969 107 105 102
-1.9950251 -1.1418859 0.3669969 107 106 102
-1.9950251 -1.1234683 0.3669969 107 105 102
-1.9950251 -1.1050508 0.3669969 107 105 102
-1.9950251 -1.0866333 0.3669969 107 105 102
-1.9950251 -1.0682159 0.3669969 107 105 102
-1.9950251 -1.0497983 0.3669969 108 106 103
-1.9950251 -1.0313808 0.3669969 107 105 102
-1.9950251 -1.0129633 0.3669969 108 106 102
-1.9950251 -0.9945458 0.3669969 109 108 105
-1.9950251 -0.9761282 0.3669969 108 107 103
-1.9950251 -0.9577108 0.3669969 108 107 104
-1.9950251 -0.9392933 0.3669969 109 107 104
-1.9950251 -0.9208758 0.3669969 109 108 104
-1.9950251 -0.9024583 0.3669969 109 107 103
-1.9950251 -0.8840407 0.3669969 109 107 104
-1.9950251 -0.8656232 0.3669969 109 107 104
-1.9950251 -0.8472058 0.3669969 110 108 105
-1.9950251 -0.8287882 0.3669969 109 107 104
-1.9950251 -0.8103707 0.3669969 109 108 104
-1.9950251 -0.7919532 0.3669969 109 107 104
-1.9950251 -0.7735357 0.3669969 109 107 103
-1.9950251 -0.7551182 0.3669969 109 107 104
-1.9950251 -0.7367007 0.3669969 109 106 103
-1.9950251 -0.7182832 0.3669969 110 108 105
-1.9950251 -0.6998657 0.3669969 109 107 104
-1.9950251 -0.6814482 0.3669969 110 107 104
-1.9950251 -0.6630307 0.3669969 111 110 106
-1.9950251 -0.6446132 0.3669969 110 109 105
-1.9950251 -0.6261956 0.3669969 110 109 105
-1.9950251 -0.6077781 0.3669969 110 109 105
-1.9950251 -0.5893606 0.3669969 111 110 106
-1.9950251 -0.5709431 0.3669969 110 109 105
-1.9950251 -0.5525256 0.3669968 110 108 105
-1.9950251 -0.5341081 0.3669968 111 109 105
-1.9950251 -0.5156906 0.3669968 112 110 107
-1.9950251 -0.4972731 0.3669968 111 109 106
-1.9950251 -0.4788556 0.3669968 111 109 106
-1.9950251 -0.4604381 0.3669968 111 109 105
-1.9950251 -0.4420206 0.3669968 111 108 105
-1.9950251 -0.4236031 0.3669968 110 108 105
-1.9950251 -0.4051855 0.3669968 110 108 105
-1.9950251 -0.3867680 0.3669968 111 109 106
-1.9950251 -0.3683505 0.3669968 111 109 106
-1.9950252 0.2762622 0.3669967 111 109 106
-1.9950252 0.2946797 0.3669967 111 109 106
-1.9950252 0.3130972 0.3669967 110 108 105
-1.9950252 0.3315148 0.3669967 112 111 107
-1.9950252 0.3499323 0.3669967 112 110 107
-1.9950252 0.3683498 0.3669967 111 110 106
-1.9950252 0.3867673 0.3669967 111 110 106
-1.9950252 0.4051848 0.3669967 112 111 107
-1.9950252 0.4236023 0.3669967 111 109 106
-1.9950252 0.4420198 0.3669967 111 109 106
-1.9950252 0.4604373 0.3669967 111 109 106
-1.9950252 0.4788548 0.3669967 112 110 107
-1.9950252 0.4972723 0.3669967 111 109 106
-1.9950252 0.5156898 0.3669967 110 109 105
-1.9950252 0.5341074 0.3669967 111 109 106
-1.9950252 0.5525248 0.3669967 110 108 104
-1.9950252 0.5709424 0.3669967 110 108 105
-1.9950252 0.5893599 0.3669967 110 108 105
-1.9950252 0.6077773 0.3669967 110 108 105
-1.9950252 0.6261949 0.3669967 111 109 105
-1.9950252 0.6446124 0.3669967 110 107 104
-1.9950252 0.6630299 0.3669967 111 109 106
-1.9950252 0.6814474 0.3669967 111 110 106
-1.9950252 0.6998649 0.3669967 111 109 106
-1.9950252 0.7182824 0.3669967 110 109 105
-1.9950252 0.7366999 0.3669967 111 110 106
-1.9950252 0.7551174 0.3669967 111 109 105
-1.9950252 0.7735349 0.3669966 110 108 105
-1.9950252 0.7919525 0.3669966 110 108 105
-1.9950252 0.8103699 0.3669966 110 109 105
-1.9950252 0.8287875 0.3669966 110 108 105
-1.9950252 0.8472050 0.3669966 109 106 103
-1.9950252 0.8656224 0.3669966 109 107 104
-1.9950252 0.8840400 0.3669966 108 105 102
-1.9950252 0.9024575 0.3669966 107 105 102
-1.9950252 0.9208750 0.3669966 107 105 102
-1.9950252 0.9392925 0.3669966 107 105 102
-1.9950252 0.9577101 0.3669966 108 105 102
-1.9950252 0.9761275 0.3669966 106 104 101
-1.9950252 0.9945450 0.3669966 107 105 102
-1.9950252 1.0129626 0.3669966 108 106 103
-1.9950252 1.0313800 0.3669966 106 105 101
-1.9950252 1.0497975 0.3669966 106 105 101
-1.9950252 1.0682151 0.3669966 107 105 102
-1.9950252 1.0866326 0.3669966 106 104 101
-1.9950252 1.1050501 0.3669966 105 104 100
-1.9950252 1.1234675 0.3669966 105 104 101
-1.9950252 1.1418851 0.3669966 106 104 101
-1.9950252 1.1603026 0.3669966 106 104 101
-1.9950782 -1.1839068 0.3471348 107 105 102
-1.9950782 -1.1654083 0.3471348 107 105 102
-1.9950782 -1.1469099 0.3471348 107 106 102
-1.9950782 -1.1284112 0.3471348 107 105 102
-1.9950782 -1.1099127 0.3471348 107 106 102
-1.9950782 -1.0914141 0.3471348 107 105 102
-1.9950782 -1.0729157 0.3471347 108 106 103
-1.9950782 -1.0544172 0.3471347 107 105 102
-1.9950782 -1.0359185 0.3471347 107 105 101
-1.9950782 -1.0174200 0.3471347 108 105 102
-1.9950782 -0.9989215 0.3471347 108 106 103
-1.9950782 -0.9804229 0.3471347 109 107 104
-1.9950782 -0.9619245 0.3471347 109 107 104
-1.9950782 -0.9434258 0.3471347 108 107 103
-1.9950782 -0.9249273 0.3471347 110 108 105
-1.9950782 -0.9064288 0.3471347 109 107 103
-1.9950782 -0.8879302 0.3471347 108 106 103
-1.9950782 -0.8694318 0.3471347 109 107 104
-1.9950782 -0.8509331 0.3471347 109 108 104
-1.9950782 -0.8324346 0.3471347 109 107 104
-1.9950782 -0.8139361 0.3471347 109 107 104
-1.9950782 -0.7954375 0.3471347 109 107 104
-1.9950782 -0.7769390 0.3471347 109 107 104
-1.9950782 -0.7584405 0.3471347 109 107 104
-1.9950782 -0.7399419 0.3471347 110 108 104
-1.9950782 -0.7214434 0.3471347 109 107 104
-1.9950782 -0.7029448 0.3471347 109 106 103
-1.9950782 -0.6844463 0.3471347 109 107 104
-1.9950782 -0.6659478 0.3471347 110 108 105
-1.9950782 -0.6474492 0.3471347 111 109 106
-1.9950782 -0.6289507 0.3471347 110 109 105
-1.9950782 -0.6104521 0.3471347 110 109 105
-1.9950782 -0.5919536 0.3471347 111 110 106
-1.9950782 -0.5734551 0.3471347 110 109 105
-1.9950782 -0.5549565 0.3471347 110 108 105
-1.9950782 -0.5364580 0.3471347 110 109 105
-1.9950782 -0.5179594 0.3471347 111 109 106
-1.9950782 -0.4994609 0.3471347 111 109 105
-1.9950782 -0.4809624 0.3471347 111 109 106
-1.9950782 -0.4624639 0.3471347 111 109 106
-1.9950782 -0.4439653 0.3471347 111 109 106
-1.9950783 -0.4254667 0.3471346 111 109 106
-1.9950783 -0.4069682 0.3471346 111 109 106
-1.9950783 -0.3884697 0.3471346 111 108 105
-1.9950783 -0.3699712 0.3471346 110 108 105
-1.9950783 -0.3514726 0.3471346 111 109 105
-1.9950783 0.2774777 0.3471345 111 109 105
-1.9950783 0.2959762 0.3471345 110 108 105
-1.9950783 0.3144748 0.3471345 111 109 105
-1.9950783 0.3329733 0.3471345 111 109 106
-1.9950783 0.3514718 0.3471345 112 110 107
-1.9950783 0.3699704 0.3471345 112 110 106
-1.9950783 0.3884689 0.3471345 111 109 106
-1.9950783 0.4069675 0.3471345 112 111 107
-1.9950783 0.4254660 0.3471345 111 109 106
-1.9950783 0.4439645 0.3471345 111 108 105
-1.9950783 0.4624631 0.3471345 111 109 106
-1.9950783 0.4809617 0.3471345 111 110 106
-1.9950783 0.4994602 0.3471345 111 109 106
-1.9950783 0.5179587 0.3471345 111 109 106
-1.9950783 0.5364573 0.3471345 111 109 106
-1.9950783 0.5549558 0.3471345 111 108 105
-1.9950783 0.5734544 0.3471345 110 109 105
-1.9950783 0.5919528 0.3471345 111 109 105
-1.9950783 0.6104514 0.3471345 110 108 105
-1.9950783 0.6289499 0.3471345 109 107 104
-1.9950783 0.6474485 0.3471345 110 108 105
-1.9950783 0.6659471 0.3471345 111 108 105
-1.9950783 0.6844455 0.3471345 111 109 106
-1.9950783 0.7029441 0.3471345 111 109 106
-1.9950783 0.7214426 0.3471345 110 109 105
-1.9950783 0.7399412 0.3471345 111 110 106
-1.9950783 0.7584397 0.3471345 110 109 105
-1.9950783 0.7769382 0.3471345 110 107 104
-1.9950783 0.7954368 0.3471345 109 108 105
-1.9950783 0.8139353 0.3471345 110 108 105
-1.9950783 0.8324339 0.3471345 109 107 104
-1.9950783 0.8509323 0.3471345 109 107 104
-1.9950783 0.8694310 0.3471345 109 107 104
-1.9950783 0.8879295 0.3471344 108 106 103
-1.9950783 0.9064280 0.3471344 108 106 103
-1.9950783 0.9249266 0.3471344 108 106 103
-1.9950783 0.9434250 0.3471344 107 105 102
-1.9950784 0.9619237 0.3471344 106 104 101
-1.9950784 0.9804222 0.3471344 107 105 101
-1.9950784 0.9989207 0.3471344 107 105 102
-1.9950784 1.0174192 0.3471344 107 106 102
-1.9950784 1.0359177 0.3471344 107 105 102
-1.9950784 1.0544164 0.3471344 106 105 101
-1.9950784 1.0729149 0.3471344 107 106 102
-1.9950784 1.0914134 0.3471344 106 104 101
-1.9950784 1.1099119 0.3471344 105 103 100
-1.9950784 1.1284104 0.3471344 105 104 100
-1.9950784 1.1469091 0.3471344 106 104 101
-1.9950784 1.1654075 0.3471344 105 103 100
-1.9950888 -1.1891194 0.3271178 106 105 101
-1.9950888 -1.1705394 0.3271178 107 105 102
-1.9950888 -1.1519594 0.3271178 107 105 102
-1.9950888 -1.1333795 0.3271178 107 104 101
-1.9950888 -1.1147994 0.3271178 108 106 103
-1.9950888 -1.0962195 0.3271178 108 107 103
-1.9950888 -1.0776395 0.3271178 108 106 103
-1.9950888 -1.0590595 0.3271178 107 106 102
-1.9950888 -1.0404796 0.3271178 107 106 102
-1.9950888 -1.0218996 0.3271178 106 104 101
-1.9950888 -1.0033195 0.3271178 108 105 102
-1.9950888 -0.9847396 0.3271178 108 106 103
-1.9950888 -0.9661596 0.3271178 108 107 103
-1.9950888 -0.9475796 0.3271178 109 107 104
-1.9950888 -0.9289996 0.3271178 109 107 104
-1.9950888 -0.9104196 0.3271178 109 107 104
-1.9950888 -0.8918397 0.3271178 108 106 103
-1.9950888 -0.8732596 0.3271178 109 106 103
-1.9950888 -0.8546796 0.3271178 109 107 104
-1.9950888 -0.8360997 0.3271178 109 107 104
-1.9950888 -0.8175197 0.3271178 108 107 103
-1.9950888 -0.7989397 0.3271178 109 107 103
-1.9950888 -0.7803597 0.3271178 110 108 105
-1.9950888 -0.7617798 0.3271178 110 109 105
-1.9950888 -0.7431998 0.3271178 109 108 104
-1.9950888 -0.7246198 0.3271178 109 107 104
-1.9950888 -0.7060398 0.3271178 109 107 104
-1.9950888 -0.6874598 0.3271178 108 106 102
-1.9950888 -0.6688798 0.3271178 110 108 105
-1.9950888 -0.6502999 0.3271178 110 108 105
-1.9950888 -0.6317199 0.3271178 110 109 105
-1.9950888 -0.6131399 0.3271178 111 109 106
-1.9950888 -0.5945599 0.3271178 111 109 106
-1.9950888 -0.5759799 0.3271178 111 109 106
-1.9950888 -0.5573999 0.3271177 110 108 105
-1.9950888 -0.5388199 0.3271177 110 108 105
-1.9950888 -0.5202400 0.3271177 110 108 105
-1.9950888 -0.5016600 0.3271177 111 109 105
-1.9950888 -0.4830800 0.3271177 110 108 105
-1.9950889 -0.4645000 0.3271177 110 108 104
-1.9950889 -0.4459200 0.3271177 111 110 106
-1.9950889 -0.4273400 0.3271177 112 110 107
-1.9950889 -0.4087600 0.3271177 111 109 106
-1.9950889 -0.3901801 0.3271177 111 109 106
-1.9950889 -0.3716001 0.3271177 110 109 105
-1.9950889 -0.3530201 0.3271177 110 107 104
-1.9950889 -0.3344401 0.3271177 111 109 106
-1.9950889 -0.3158601 0.3271177 111 110 106
-1.9950889 -0.2972801 0.3271177 112 110 107
-1.9950889 -0.2787001 0.3271177 112 110 107
-0.6078313 -0.0177343 0.9979443 129 129 129
-1.9950889 0.2786994 0.3271176 111 109 106
-1.9950889 0.2972794 0.3271176 110 109 105
-1.9950889 0.3158593 0.3271176 110 108 104
-1.9950889 0.3344393 0.3271176 111 108 105
-1.9950889 0.3530193 0.3271176 111 109 106
-1.9950889 0.3715993 0.3271176 111 110 106
-1.9950889 0.3901793 0.3271176 111 110 106
-1.9950889 0.4087593 0.3271176 111 110 106
-1.9950889 0.4273392 0.3271176 111 109 106
-1.9950889 0.4459192 0.3271176 110 108 105
-1.9950889 0.4644992 0.3271176 110 108 105
-1.9950889 0.4830792 0.3271176 111 109 106
-1.9950889 0.5016592 0.3271176 111 109 106
-1.9950889 0.5202392 0.3271176 110 108 105
-1.9950889 0.5388192 0.3271176 110 108 105
-1.9950889 0.5573991 0.3271176 111 109 106
-1.9950889 0.5759791 0.3271176 111 110 106
-1.9950889 0.5945591 0.3271176 110 108 105
-1.9950889 0.6131391 0.3271176 110 109 105
-1.9950889 0.6317191 0.3271176 110 108 104
-1.9950889 0.6502991 0.3271176 109 106 103
-1.9950889 0.6688791 0.3271176 110 108 105
-1.9950889 0.6874590 0.3271176 111 109 105
-1.9950889 0.7060390 0.3271176 111 109 106
-1.9950889 0.7246190 0.3271176 111 109 106
-1.9950889 0.7431990 0.3271175 111 109 106
-1.9950889 0.7617790 0.3271175 110 109 105
-1.9950889 0.7803589 0.3271175 110 107 104
-1.9950889 0.7989390 0.3271175 109 107 104
-1.9950889 0.8175189 0.3271175 109 107 104
-1.9950889 0.8360989 0.3271175 109 107 104
-1.9950889 0.8546788 0.3271175 108 106 103
-1.9950889 0.8732589 0.3271175 108 106 103
-1.9950889 0.8918389 0.3271175 109 107 104
-1.9950890 0.9104188 0.3271175 109 107 104
-1.9950890 0.9289989 0.3271175 107 105 102
-1.9950890 0.9475788 0.3271175 107 106 102
-1.9950890 0.9661588 0.3271175 106 105 101
-1.9950890 0.9847388 0.3271175 106 104 100
-1.9950890 1.0033188 0.3271175 107 104 101
-1.9950890 1.0218988 0.3271175 106 105 101
-1.9950890 1.0404788 0.3271175 107 105 102
-1.9950890 1.0590588 0.3271175 106 105 101
-1.9950890 1.0776387 0.3271175 106 105 101
-1.9950890 1.0962187 0.3271175 106 104 101
-1.9950890 1.1147986 0.3271175 105 103 100
-1.9950890 1.1333787 0.3271175 105 103 100
-1.9950890 1.1519587 0.3271175 105 103 100
-1.9950890 1.1705386 0.3271175 105 104 101
-1.9950995 -1.1943781 0.3069239 106 104 101
-1.9950995 -1.1757160 0.3069238 106 105 101
-1.9950995 -1.1570537 0.3069238 107 105 102
-1.9950995 -1.1383916 0.3069238 107 105 102
-1.9950995 -1.1197294 0.3069238 107 106 103
-1.9950995 -1.1010673 0.3069238 107 105 102
-1.9950995 -1.0824051 0.3069238 108 105 102
-1.9950995 -1.0637430 0.3069238 107 105 102
-1.9950995 -1.0450808 0.3069238 108 106 103
-1.9950995 -1.0264187 0.3069238 107 104 101
-1.9950995 -1.0077566 0.3069238 108 105 102
-1.9950995 -0.9890945 0.3069238 108 107 103
-1.9950995 -0.9704323 0.3069238 108 106 103
-1.9950995 -0.9517702 0.3069238 109 107 104
-1.9950995 -0.9331079 0.3069238 107 105 102
-1.9950995 -0.9144458 0.3069238 108 107 103
-1.9950995 -0.8957836 0.3069238 108 107 103
-1.9950995 -0.8771215 0.3069238 108 106 103
-1.9950995 -0.8584593 0.3069238 108 106 103
-1.9950995 -0.8397972 0.3069238 109 107 104
-1.9950995 -0.8211350 0.3069238 109 107 104
-1.9950995 -0.8024729 0.3069238 109 107 103
-1.9950995 -0.7838108 0.3069238 109 107 104
-1.9950996 -0.7651486 0.3069238 109 107 104
-1.9950996 -0.7464865 0.3069238 109 107 104
-1.9950996 -0.7278243 0.3069238 109 107 104
-1.9950996 -0.7091621 0.3069238 110 108 105
-1.9950996 -0.6905000 0.3069238 109 106 103
-1.9950996 -0.6718378 0.3069238 110 107 104
-1.9950996 -0.6531757 0.3069238 110 108 105
-1.9950996 -0.6345135 0.3069238 110 108 105
-1.9950996 -0.6158514 0.3069238 110 109 105
-1.9950996 -0.5971892 0.3069238 109 107 104
-1.9950996 -0.5785271 0.3069238 110 108 105
-1.9950996 -0.5598649 0.3069238 110 108 104
-1.9950996 -0.5412028 0.3069238 110 108 105
-1.9950996 -0.5225406 0.3069237 110 107 104
-1.9950996 -0.5038785 0.3069237 110 108 105
-1.9950996 -0.4852164 0.3069237 111 109 105
-1.9950996 -0.4665542 0.3069237 110 108 105
-1.9950996 -0.4478920 0.3069237 111 109 106
-1.9950996 -0.4292299 0.3069237 110 108 105
-1.9950996 -0.4105677 0.3069237 111 108 105
-1.9950996 -0.3919056 0.3069237 110 108 105
-1.9950996 -0.3732434 0.3069237 111 109 106
-1.9950996 -0.3545813 0.3069237 110 107 104
-1.9950996 -0.3359191 0.3069237 111 109 106
-1.9950996 -0.3172570 0.3069237 111 110 106
-1.9950996 -0.2985948 0.3069237 112 110 107
-0.6070728 -0.0178020 0.9886820 131 131 131
-1.9950996 0.2799319 0.3069236 111 109 106
-1.9950996 0.2985940 0.3069236 111 109 106
-1.9950996 0.3172562 0.3069236 110 108 104
-1.9950996 0.3359183 0.3069236 112 110 106
-1.9950996 0.3545805 0.3069236 111 109 106
-1.9950996 0.3732426 0.3069236 111 110 106
-1.9950996 0.3919048 0.3069236 110 109 105
-1.9950996 0.4105669 0.3069236 111 108 105
-1.9950996 0.4292291 0.3069236 111 109 106
-1.9950996 0.4478912 0.3069236 111 109 106
-1.9950996 0.4665534 0.3069236 110 108 105
-1.9950996 0.4852156 0.3069236 110 108 105
-1.9950996 0.5038777 0.3069236 110 108 105
-1.9950996 0.5225398 0.3069236 111 109 105
-1.9950996 0.5412020 0.3069236 111 109 106
-1.9950996 0.5598641 0.3069236 111 109 105
-1.9950996 0.5785263 0.3069236 110 108 105
-1.9950997 0.5971884 0.3069236 110 108 105
-1.9950997 0.6158506 0.3069236 110 109 105
-1.9950997 0.6345127 0.3069236 110 108 105
-1.9950997 0.6531749 0.3069236 110 107 104
-1.9950997 0.6718371 0.3069236 111 109 106
-1.9950997 0.6904992 0.3069236 110 108 105
-1.9950997 0.7091614 0.3069236 111 109 106
-1.9950997 0.7278235 0.3069236 110 108 104
-1.9950997 0.7464857 0.3069236 110 108 105
-1.9950997 0.7651478 0.3069236 110 108 105
-1.9950997 0.7838100 0.3069235 110 108 105
-1.9950997 0.8024721 0.3069235 109 106 103
-1.9950997 0.8211342 0.3069235 108 106 103
-1.9950997 0.8397964 0.3069235 109 107 104
-1.9950997 0.8584585 0.3069235 109 107 104
-1.9950997 0.8771207 0.3069235 108 107 103
-1.9950997 0.8957829 0.3069235 108 107 103
-1.9950997 0.9144450 0.3069235 108 106 103
-1.9950997 0.9331072 0.3069235 107 105 102
-1.9950997 0.9517694 0.3069235 108 106 102
-1.9950997 0.9704315 0.3069235 107 104 101
-1.9950997 0.9890937 0.3069235 106 104 101
-1.9950997 1.0077558 0.3069235 107 105 102
-1.9950997 1.0264179 0.3069235 106 104 101
-1.9950997 1.0450800 0.3069235 107 105 102
-1.9950997 1.0637422 0.3069235 105 103 100
-1.9950997 1.0824043 0.3069235 106 104 101
-1.9950997 1.1010666 0.3069235 106 104 101
-1.9950997 1.1197287 0.3069235 106 104 101
-1.9950997 1.1383909 0.3069235 105 102 100
-1.9950997 1.1570530 0.3069235 105 103 100
-1.9950997 1.1757152 0.3069235 105 103 100
-1.9951105 -1.1996836 0.2865503 106 104 101
-1.9951105 -1.1809385 0.2865503 106 105 101
-1.9951105 -1.1621935 0.2865503 107 104 101
-1.9951105 -1.1434484 0.2865503 106 104 101
-1.9951105 -1.1247034 0.2865503 106 104 101
-1.9951105 -1.1059583 0.2865503 107 105 102
-1.9951105 -1.0872133 0.2865503 108 106 102
-1.9951105 -1.0684681 0.2865503 107 106 102
-1.9951105 -1.0497232 0.2865503 107 105 101
-1.9951105 -1.0309781 0.2865503 108 105 102
-1.9951106 -1.0122331 0.2865503 108 106 102
-1.9951106 -0.9934880 0.2865503 108 107 103
-1.9951106 -0.9747430 0.2865503 108 106 103
-1.9951106 -0.9559979 0.2865503 108 106 103
-1.9951106 -0.9372529 0.2865503 108 106 103
-1.9951106 -0.9185079 0.2865503 109 107 104
-1.9951106 -0.8997627 0.2865503 109 107 104
-1.9951106 -0.8810177 0.2865503 107 106 102
-1.9951106 -0.8622727 0.2865503 108 106 103
-1.9951106 -0.8435276 0.2865503 108 106 103
-1.9951106 -0.8247826 0.2865503 108 106 103
-1.9951106 -0.8060375 0.2865503 108 106 103
-1.9951106 -0.7872925 0.2865503 108 106 103
-1.9951106 -0.7685474 0.2865503 109 107 104
-1.9951106 -0.7498024 0.2865503 110 108 104
-1.9951106 -0.7310573 0.2865503 109 107 104
-1.9951106 -0.7123123 0.2865503 109 107 104
-1.9951106 -0.6935673 0.2865503 110 107 104
-1.9951106 -0.6748222 0.2865503 110 108 104
-1.9951106 -0.6560771 0.2865503 110 108 105
-1.9951106 -0.6373321 0.2865503 110 109 105
-1.9951106 -0.6185871 0.2865503 110 108 105
-1.9951106 -0.5998420 0.2865503 109 107 104
-1.9951106 -0.5810969 0.2865503 110 109 105
-1.9951106 -0.5623519 0.2865502 110 109 105
-1.9951106 -0.5436069 0.2865502 109 107 104
-1.9951106 -0.5248618 0.2865502 110 107 104
-1.9951106 -0.5061167 0.2865502 110 108 105
-1.9951106 -0.4873717 0.2865502 110 108 105
-1.9951106 -0.4686266 0.2865502 110 107 104
-1.9951106 -0.4498816 0.2865502 110 108 105
-1.9951106 -0.4311366 0.2865502 111 109 105
-1.9951106 -0.4123915 0.2865502 111 110 106
-1.9951106 -0.3936464 0.2865502 110 108 105
-1.9951106 -0.3749014 0.2865502 110 108 105
-1.9951106 -0.3561563 0.2865502 111 109 105
-1.9951106 -0.3374113 0.2865502 111 109 106
-1.9951106 -0.3186662 0.2865502 111 109 106
-0.6093274 -0.0268692 0.9778428 126 126 126
-0.6061221 -0.0178676 0.9794417 133 133 133
-1.9951106 0.3186654 0.2865501 111 109 106
-1.9951106 0.3374105 0.2865501 111 110 106
-1.9951106 0.3561555 0.2865501 111 109 106
-1.9951107 0.3749006 0.2865501 111 109 106
-1.9951107 0.3936456 0.2865501 111 109 106
-1.9951107 0.4123907 0.2865501 111 109 106
-1.9951107 0.4311358 0.2865501 111 110 106
-1.9951107 0.4498808 0.2865501 110 108 105
-1.9951107 0.4686258 0.2865501 110 107 104
-1.9951107 0.4873709 0.2865501 110 108 105
-1.9951107 0.5061159 0.2865501 110 108 105
-1.9951107 0.5248610 0.2865501 110 107 104
-1.9951107 0.5436061 0.2865501 110 108 105
-1.9951107 0.5623511 0.2865501 110 108 105
-1.9951107 0.5810961 0.2865501 111 109 105
-1.9951107 0.5998412 0.2865501 110 109 105
-1.9951107 0.6185863 0.2865501 110 107 104
-1.9951107 0.6373313 0.2865501 110 108 105
-1.9951107 0.6560763 0.2865501 110 108 105
-1.9951107 0.6748214 0.2865501 111 109 106
-1.9951107 0.6935665 0.2865501 111 109 106
-1.9951107 0.7123115 0.2865501 110 108 105
-1.9951107 0.7310565 0.2865501 110 108 105
-1.9951107 0.7498016 0.2865500 110 109 105
-1.9951107 0.7685466 0.2865500 110 109 105
-1.9951107 0.7872917 0.2865500 108 106 103
-1.9951107 0.8060367 0.2865500 109 106 103
-1.9951107 0.8247818 0.2865500 109 107 103
-1.9951107 0.8435268 0.2865500 109 106 103
-1.9951107 0.8622719 0.2865500 108 105 102
-1.9951107 0.8810169 0.2865500 108 105 102
-1.9951107 0.8997619 0.2865500 108 106 102
-1.9951107 0.9185071 0.2865500 108 107 103
-1.9951107 0.9372521 0.2865500 107 105 102
-1.9951107 0.9559971 0.2865500 107 105 101
-1.9951107 0.9747422 0.2865500 107 105 102
-1.9951107 0.9934872 0.2865500 107 105 102
-1.9951107 1.0122323 0.2865500 107 105 102
-1.9951107 1.0309773 0.2865500 107 105 102
-1.9951107 1.0497224 0.2865500 106 105 101
-1.9951107 1.0684673 0.2865500 106 104 101
-1.9951107 1.0872125 0.2865500 107 105 102
-1.9951107 1.1059575 0.2865500 106 104 101
-1.9951107 1.1247027 0.2865500 105 103 100
-1.9951107 1.1434476 0.2865500 105 103 100
-1.9951107 1.1621927 0.2865500 105 103 100
-1.9951107 1.1809377 0.2865500 105 103 100
-1.9951649 -1.2050560 0.2659732 106 104 101
-1.9951649 -1.1862270 0.2659732 107 104 101
-1.9951649 -1.1673980 0.2659732 106 104 101
-1.9951649 -1.1485690 0.2659732 106 104 101
-1.9951649 -1.1297399 0.2659732 107 105 101
-1.9951649 -1.1109111 0.2659732 106 104 101
-1.9951649 -1.0920821 0.2659732 107 106 102
-1.9951649 -1.0732530 0.2659732 108 106 102
-1.9951649 -1.0544241 0.2659731 108 106 102
-1.9951649 -1.0355951 0.2659731 106 104 101
-1.9951649 -1.0167660 0.2659731 107 105 102
-1.9951649 -0.9979371 0.2659731 109 107 103
-1.9951649 -0.9791081 0.2659731 108 106 103
-1.9951649 -0.9602791 0.2659731 107 105 102
-1.9951649 -0.9414501 0.2659731 108 105 102
-1.9951649 -0.9226211 0.2659731 108 106 103
-1.9951649 -0.9037921 0.2659731 108 106 103
-1.9951649 -0.8849631 0.2659731 108 106 103
-1.9951649 -0.8661341 0.2659731 108 105 102
-1.9951649 -0.8473052 0.2659731 109 106 103
-1.9951649 -0.8284761 0.2659731 108 106 103
-1.9951649 -0.8096471 0.2659731 109 107 103
-1.9951649 -0.7908181 0.2659731 108 106 103
-1.9951649 -0.7719891 0.2659731 108 106 103
-1.9951649 -0.7531602 0.2659731 110 108 104
-1.9951649 -0.7343312 0.2659731 110 107 104
-1.9951649 -0.7155021 0.2659731 109 107 104
-1.9951649 -0.6966732 0.2659731 109 107 103
-1.9951649 -0.6778441 0.2659731 109 107 103
-1.9951649 -0.6590152 0.2659731 110 109 105
-1.9951649 -0.6401862 0.2659731 110 108 105
-1.9951649 -0.6213572 0.2659731 109 107 104
-1.9951649 -0.6025282 0.2659731 110 108 104
-1.9951649 -0.5836992 0.2659731 109 107 104
-1.9951649 -0.5648702 0.2659731 110 108 105
-1.9951649 -0.5460412 0.2659731 110 107 104
-1.9951649 -0.5272122 0.2659731 110 107 104
-1.9951649 -0.5083832 0.2659731 110 108 105
-1.9951649 -0.4895543 0.2659731 110 108 105
-1.9951649 -0.4707252 0.2659731 110 108 105
-1.9951649 -0.4518963 0.2659731 110 107 104
-1.9951649 -0.4330672 0.2659731 110 108 105
-1.9951649 -0.4142382 0.2659731 111 110 105
-1.9951649 -0.3954093 0.2659730 111 109 105
-1.9951649 -0.3765803 0.2659730 110 108 105
-1.9951649 -0.3577513 0.2659730 110 109 105
-1.9951649 -0.3389223 0.2659730 111 108 105
-0.6050169 -0.0179315 0.9702079 135 135 135
-1.9951650 0.3389215 0.2659729 112 110 106
-1.9951650 0.3577505 0.2659729 111 109 106
-1.9951650 0.3765795 0.2659729 110 108 105
-1.9951650 0.3954085 0.2659729 111 108 105
-1.9951650 0.4142374 0.2659729 110 108 105
-1.9951650 0.4330664 0.2659729 111 109 105
-1.9951650 0.4518955 0.2659729 110 108 105
-1.9951650 0.4707245 0.2659729 110 107 104
-1.9951650 0.4895535 0.2659729 111 108 105
-1.9951650 0.5083824 0.2659729 110 108 105
-1.9951650 0.5272114 0.2659729 110 108 105
-1.9951650 0.5460404 0.2659729 110 107 104
-1.9951650 0.5648694 0.2659729 110 107 104
-1.9951650 0.5836984 0.2659729 111 109 105
-1.9951650 0.6025274 0.2659729 111 108 105
-1.9951650 0.6213564 0.2659729 109 107 104
-1.9951650 0.6401854 0.2659729 110 108 104
-1.9951650 0.6590144 0.2659729 109 107 104
-1.9951650 0.6778434 0.2659729 111 109 106
-1.9951650 0.6966724 0.2659729 110 108 105
-1.9951650 0.7155013 0.2659729 109 107 104
-1.9951650 0.7343304 0.2659729 110 108 105
-1.9951650 0.7531594 0.2659729 109 107 104
-1.9951650 0.7719884 0.2659729 109 108 105
-1.9951650 0.7908173 0.2659729 109 107 104
-1.9951650 0.8096463 0.2659729 109 106 103
-1.9951650 0.8284753 0.2659729 109 106 103
-1.9951650 0.8473044 0.2659729 108 107 104
-1.9951650 0.8661333 0.2659729 108 106 103
-1.9951650 0.8849623 0.2659729 107 105 102
-1.9951650 0.9037913 0.2659729 108 106 102
-1.9951650 0.9226203 0.2659728 108 106 102
-1.9951650 0.9414493 0.2659728 108 106 102
-1.9951650 0.9602783 0.2659728 106 104 101
-1.9951650 0.9791073 0.2659728 106 105 101
-1.9951650 0.9979363 0.2659728 107 105 101
-1.9951650 1.0167652 0.2659728 107 106 102
-1.9951650 1.0355943 0.2659728 106 104 101
-1.9951650 1.0544233 0.2659728 105 103 100
-1.9951650 1.0732522 0.2659728 106 104 101
-1.9951650 1.0920813 0.2659728 105 103 100
-1.9951650 1.1109103 0.2659728 106 103 100
-1.9951650 1.1297391 0.2659728 105 103 100
-1.9951650 1.1485682 0.2659728 105 103 100
-1.9951650 1.1673972 0.2659728 105 103 100
-1.9951650 1.1862262 0.2659728 105 103 100
-1.9951761 -1.2104569 0.2452333 106 103 100
-1.9951761 -1.1915435 0.2452333 106 105 101
-1.9951761 -1.1726301 0.2452333 106 105 101
-1.9951761 -1.1537167 0.2452333 107 105 102
-1.9951761 -1.1348033 0.2452333 107 105 102
-1.9951761 -1.1158901 0.2452333 107 105 102
-1.9951761 -1.0969767 0.2452333 107 105 102
-1.9951761 -1.0780632 0.2452333 106 104 101
-1.9951761 -1.0591498 0.2452333 108 106 102
-1.9951761 -1.0402364 0.2452333 107 105 102
-1.9951761 -1.0213230 0.2452333 107 105 102
-1.9951761 -1.0024096 0.2452333 107 106 102
-1.9951761 -0.9834963 0.2452333 108 106 103
-1.9951761 -0.9645828 0.2452333 108 106 103
-1.9951761 -0.9456696 0.2452333 109 107 104
-1.9951761 -0.9267562 0.2452333 108 107 103
-1.9951761 -0.9078428 0.2452333 108 107 103
-1.9951761 -0.8889294 0.2452333 108 107 103
-1.9951761 -0.8700160 0.2452333 108 105 102
-1.9951761 -0.8511026 0.2452333 108 107 104
-1.9951761 -0.8321892 0.2452333 109 107 103
-1.9951761 -0.8132759 0.2452332 109 107 104
-1.9951761 -0.7943625 0.2452332 109 107 104
-1.9951761 -0.7754491 0.2452332 109 107 104
-1.9951761 -0.7565357 0.2452332 108 106 103
-1.9951761 -0.7376223 0.2452332 109 107 103
-1.9951761 -0.7187090 0.2452332 109 107 104
-1.9951761 -0.6997956 0.2452332 109 106 103
-1.9951761 -0.6808821 0.2452332 109 107 103
-1.9951761 -0.6619688 0.2452332 109 107 104
-1.9951761 -0.6430554 0.2452332 110 108 105
-1.9951761 -0.6241420 0.2452332 110 109 105
-1.9951761 -0.6052286 0.2452332 111 109 105
-1.9951761 -0.5863153 0.2452332 110 108 104
-1.9951761 -0.5674019 0.2452332 110 109 105
-1.9951761 -0.5484885 0.2452332 109 107 104
-1.9951761 -0.5295751 0.2452332 110 108 104
-1.9951761 -0.5106617 0.2452332 110 108 105
-1.9951761 -0.4917483 0.2452332 111 109 105
-1.9951761 -0.4728350 0.2452332 110 109 105
-1.9951761 -0.4539216 0.2452332 110 108 105
-1.9951761 -0.4350082 0.2452332 111 109 105
-1.9951761 -0.4160948 0.2452332 109 107 104
-1.9951761 -0.3971814 0.2452332 111 109 105
-1.9951761 -0.3782680 0.2452332 110 108 105
-1.9951761 -0.3593547 0.2452332 110 108 105
-0.6036770 -0.0179927 0.9610243 138 138 138
-1.9951762 0.3593539 0.2452331 111 109 106
-1.9951762 0.3782672 0.2452331 112 110 106
-1.9951762 0.3971806 0.2452331 112 110 107
-1.9951762 0.4160940 0.2452331 110 108 105
-1.9951762 0.4350074 0.2452331 111 109 106
-1.9951762 0.4539208 0.2452331 110 107 104
-1.9951762 0.4728342 0.2452331 110 108 105
-1.9951762 0.4917475 0.2452331 110 108 105
-1.9951762 0.5106609 0.2452330 110 109 105
-1.9951762 0.5295743 0.2452330 111 109 106
-1.9951762 0.5484877 0.2452330 110 108 105
-1.9951762 0.5674011 0.2452330 110 109 105
-1.9951762 0.5863145 0.2452330 109 107 104
-1.9951762 0.6052278 0.2452330 111 109 105
-1.9951762 0.6241412 0.2452330 110 108 104
-1.9951762 0.6430546 0.2452330 110 107 104
-1.9951762 0.6619679 0.2452330 110 108 105
-1.9951762 0.6808813 0.2452330 110 108 105
-1.9951762 0.6997948 0.2452330 110 109 105
-1.9951762 0.7187082 0.2452330 111 109 106
-1.9951762 0.7376215 0.2452330 110 109 105
-1.9951762 0.7565349 0.2452330 110 108 105
-1.9951762 0.7754483 0.2452330 110 108 105
-1.9951762 0.7943617 0.2452330 108 106 103
-1.9951762 0.8132751 0.2452330 109 107 104
-1.9951762 0.8321884 0.2452330 108 107 103
-1.9951762 0.8511018 0.2452330 109 107 103
-1.9951762 0.8700152 0.2452330 108 106 103
-1.9951762 0.8889286 0.2452330 108 106 103
-1.9951762 0.9078420 0.2452330 107 105 102
-1.9951762 0.9267554 0.2452330 107 104 101
-1.9951762 0.9456688 0.2452330 107 105 102
-1.9951762 0.9645820 0.2452330 106 104 101
-1.9951762 0.9834955 0.2452330 106 104 101
-1.9951762 1.0024088 0.2452330 106 105 102
-1.9951762 1.0213222 0.2452330 106 105 101
-1.9951762 1.0402356 0.2452330 107 105 102
-1.9951762 1.0591490 0.2452330 107 106 102
-1.9951762 1.0780624 0.2452330 106 104 101
-1.9951762 1.0969759 0.2452330 106 105 101
-1.9951762 1.1158893 0.2452330 105 104 100
-1.9951762 1.1348025 0.2452330 105 103 100
-1.9951762 1.1537159 0.2452329 105 104 101
-1.9951762 1.1726293 0.2452329 106 104 101
-1.9951762 1.1915427 0.2452329 106 104 101
-1.9951875 -1.2159064 0.2243066 105 103 100
-1.9951875 -1.1969079 0.2243066 107 105 102
-1.9951875 -1.1779094 0.2243066 107 105 102
-1.9951875 -1.1589109 0.2243066 106 104 101
-1.9951875 -1.1399124 0.2243066 106 104 101
-1.9951875 -1.1209138 0.2243066 107 105 101
-1.9951875 -1.1019153 0.2243066 106 104 101
-1.9951875 -1.0829167 0.2243066 107 106 102
-1.9951875 -1.0639182 0.2243066 107 105 101
-1.9951875 -1.0449197 0.2243066 107 105 102
-1.9951875 -1.0259212 0.2243066 107 105 102
-1.9951875 -1.0069226 0.2243066 107 104 101
-1.9951875 -0.9879241 0.2243066 107 105 102
-1.9951875 -0.9689256 0.2243066 108 105 102
-1.9951875 -0.9499270 0.2243066 108 107 103
-1.9951875 -0.9309285 0.2243066 108 106 102
-1.9951875 -0.9119299 0.2243066 109 107 103
-1.9951875 -0.8929314 0.2243066 108 106 103
-1.9951875 -0.8739329 0.2243066 107 105 102
-1.9951875 -0.8549344 0.2243066 109 108 104
-1.9951875 -0.8359358 0.2243066 109 107 104
-1.9951875 -0.8169373 0.2243066 108 106 102
-1.9951875 -0.7979388 0.2243066 109 107 103
-1.9951875 -0.7789402 0.2243066 108 106 103
-1.9951875 -0.7599417 0.2243066 109 107 104
-1.9951875 -0.7409432 0.2243066 109 107 103
-1.9951875 -0.7219446 0.2243066 108 106 103
-1.9951875 -0.7029461 0.2243066 109 108 104
-1.9951875 -0.6839475 0.2243066 108 106 103
-1.9951875 -0.6649490 0.2243066 109 106 103
-1.9951875 -0.6459505 0.2243066 109 107 104
-1.9951875 -0.6269520 0.2243065 109 107 104
-1.9951875 -0.6079534 0.2243065 110 108 105
-1.9951875 -0.5889549 0.2243065 110 108 105
-1.9951875 -0.5699564 0.2243065 110 108 105
-1.9951875 -0.5509578 0.2243065 109 107 103
-1.9951875 -0.5319593 0.2243065 110 108 105
-1.9951875 -0.5129608 0.2243065 110 109 105
-1.9951875 -0.4939622 0.2243065 110 108 105
-1.9951875 -0.4749637 0.2243065 110 107 104
-1.9951875 -0.4559651 0.2243065 110 108 105
-1.9951875 -0.4369666 0.2243065 109 107 104
-1.9951875 -0.4179681 0.2243065 110 109 105
-1.9951875 -0.3989696 0.2243065 110 108 105
-1.9951875 -0.3799710 0.2243065 110 108 105
-0.6020908 -0.0180509 0.9519017 141 141 141
-1.9951876 0.3799702 0.2243064 111 109 106
-1.9951876 0.3989688 0.2243064 110 108 105
-1.9951876 0.4179673 0.2243064 111 109 106
-1.9951876 0.4369658 0.2243064 111 108 105
-1.9951876 0.4559643 0.2243064 109 107 103
-1.9951876 0.4749629 0.2243064 111 109 106
-1.9951876 0.4939614 0.2243064 111 109 106
-1.9951876 0.5129600 0.2243064 110 108 104
-1.9951876 0.5319585 0.2243064 110 108 105
-1.9951876 0.5509570 0.2243064 110 108 105
-1.9951876 0.5699556 0.2243064 109 107 104
-1.9951876 0.5889541 0.2243064 110 108 104
-1.9951876 0.6079526 0.2243064 110 108 104
-1.9951876 0.6269512 0.2243064 110 108 105
-1.9951876 0.6459497 0.2243064 109 107 104
-1.9951876 0.6649482 0.2243064 109 107 104
-1.9951876 0.6839467 0.2243063 109 107 104
-1.9951876 0.7029453 0.2243063 110 108 104
-1.9951876 0.7219438 0.2243063 110 109 105
-1.9951876 0.7409424 0.2243063 110 107 104
-1.9951876 0.7599409 0.2243063 110 108 105
-1.9951876 0.7789394 0.2243063 109 107 103
-1.9951876 0.7979379 0.2243063 108 107 103
-1.9951876 0.8169364 0.2243063 109 108 104
-1.9951876 0.8359350 0.2243063 109 107 104
-1.9951876 0.8549336 0.2243063 108 106 102
-1.9951876 0.8739321 0.2243063 108 106 103
-1.9951876 0.8929306 0.2243063 107 104 102
-1.9951876 0.9119291 0.2243063 108 106 102
-1.9951876 0.9309276 0.2243063 107 106 102
-1.9951876 0.9499262 0.2243063 107 104 101
-1.9951876 0.9689248 0.2243063 107 105 102
-1.9951876 0.9879233 0.2243063 106 103 100
-1.9951876 1.0069218 0.2243063 106 104 101
-1.9951876 1.0259203 0.2243063 107 105 102
-1.9951876 1.0449188 0.2243063 106 104 101
-1.9951876 1.0639174 0.2243063 106 104 101
-1.9951876 1.0829159 0.2243063 106 105 101
-1.9951876 1.1019145 0.2243063 106 104 101
-1.9951876 1.1209130 0.2243063 105 102 99
-1.9951877 1.1399116 0.2243063 106 104 101
-1.9951877 1.1589101 0.2243063 106 104 101
-1.9951877 1.1779086 0.2243063 105 103 100
-1.9951877 1.1969071 0.2243063 105 103 100
-1.9952428 -1.2214255 0.2031675 106 103 101
-1.9952428 -1.2023407 0.2031675 106 104 101
-1.9952428 -1.1832558 0.2031675 107 105 102
-1.9952428 -1.1641711 0.2031675 105 103 100
-1.9952428 -1.1450865 0.2031675 105 103 100
-1.9952428 -1.1260015 0.2031675 106 104 101
-1.9952428 -1.1069168 0.2031675 106 104 101
-1.9952428 -1.0878321 0.2031675 106 104 101
-1.9952428 -1.0687473 0.2031675 106 104 100
-1.9952428 -1.0496625 0.2031675 106 104 101
-1.9952428 -1.0305778 0.2031675 108 106 103
-1.9952428 -1.0114930 0.2031675 106 104 101
-1.9952428 -0.9924082 0.2031675 108 106 103
-1.9952428 -0.9733235 0.2031675 107 105 102
-1.9952428 -0.9542388 0.2031675 108 106 103
-1.9952428 -0.9351540 0.2031675 107 105 102
-1.9952428 -0.9160692 0.2031675 108 106 103
-1.9952428 -0.8969844 0.2031674 108 106 102
-1.9952428 -0.8778996 0.2031674 107 105 102
-1.9952428 -0.8588149 0.2031674 108 107 103
-1.9952428 -0.8397301 0.2031674 108 107 103
-1.9952428 -0.8206454 0.2031674 107 104 101
-1.9952428 -0.8015606 0.2031674 108 106 103
-1.9952428 -0.7824758 0.2031674 109 107 104
-1.9952428 -0.7633911 0.2031674 108 105 102
-1.9952428 -0.7443063 0.2031674 108 106 103
-1.9952428 -0.7252216 0.2031674 108 105 102
-1.9952428 -0.7061368 0.2031674 109 107 104
-1.9952428 -0.6870519 0.2031674 109 107 103
-1.9952428 -0.6679672 0.2031674 109 107 104
-1.9952428 -0.6488824 0.2031674 108 107 103
-1.9952428 -0.6297977 0.2031674 109 108 104
-1.9952428 -0.6107129 0.2031674 109 107 104
-1.9952428 -0.5916281 0.2031674 109 107 104
-1.9952428 -0.5725434 0.2031674 110 108 105
-1.9952428 -0.5534586 0.2031674 110 107 104
-1.9952428 -0.5343739 0.2031674 110 108 104
-1.9952428 -0.5152891 0.2031674 111 109 106
-1.9952428 -0.4962043 0.2031674 109 107 103
-1.9952428 -0.4771196 0.2031674 109 107 104
-1.9952428 -0.4580348 0.2031674 110 108 105
-1.9952428 -0.4389500 0.2031674 109 107 104
-1.9952428 -0.4198653 0.2031674 110 108 104
-1.9952428 -0.4007805 0.2031674 109 107 103
-0.6002668 -0.0181062 0.9428405 145 145 145
-1.9952429 0.3816949 0.2031673 110 109 105
-1.9952429 0.4007797 0.2031673 110 108 104
-1.9952429 0.4198645 0.2031672 111 109 105
-1.9952429 0.4389492 0.2031672 110 108 105
-1.9952429 0.4580340 0.2031672 110 107 104
-1.9952429 0.4771188 0.2031672 110 109 105
-1.9952429 0.4962035 0.2031672 110 108 105
-1.9952429 0.5152883 0.2031672 108 106 103
-1.9952429 0.5343731 0.2031672 110 108 105
-1.9952429 0.5534578 0.2031672 110 108 105
-1.9952429 0.5725426 0.2031672 109 107 103
-1.9952429 0.5916273 0.2031672 109 107 104
-1.9952429 0.6107121 0.2031672 109 106 103
-1.9952429 0.6297969 0.2031672 110 108 105
-1.9952429 0.6488816 0.2031672 109 107 104
-1.9952429 0.6679664 0.2031672 110 108 104
-1.9952429 0.6870511 0.2031672 109 107 104
-1.9952429 0.7061359 0.2031672 110 108 105
-1.9952429 0.7252208 0.2031672 110 108 104
-1.9952429 0.7443054 0.2031672 109 107 104
-1.9952429 0.7633903 0.2031672 109 107 104
-1.9952429 0.7824750 0.2031672 109 107 104
-1.9952429 0.8015598 0.2031672 109 107 104
-1.9952429 0.8206446 0.2031672 109 108 104
-1.9952429 0.8397293 0.2031672 107 105 102
-1.9952429 0.8588141 0.2031672 107 105 102
-1.9952429 0.8778988 0.2031672 107 105 102
-1.9952429 0.8969836 0.2031672 107 104 102
-1.9952429 0.9160684 0.2031672 107 105 102
-1.9952429 0.9351531 0.2031672 106 104 100
-1.9952429 0.9542379 0.2031672 106 104 101
-1.9952429 0.9733227 0.2031672 107 105 102
-1.9952429 0.9924074 0.2031672 106 104 100
-1.9952429 1.0114922 0.2031672 107 105 102
-1.9952429 1.0305770 0.2031672 106 104 101
-1.9952429 1.0496617 0.2031672 106 105 101
-1.9952429 1.0687465 0.2031671 106 104 100
-1.9952429 1.0878313 0.2031671 106 105 101
-1.9952429 1.1069160 0.2031671 106 104 101
-1.9952429 1.1260007 0.2031671 105 103 100
-1.9952429 1.1450856 0.2031671 106 105 101
-1.9952429 1.1641703 0.2031671 105 104 100
-1.9952429 1.1832550 0.2031671 104 102 98
-1.9952429 1.2023398 0.2031671 105 103 100
-1.9952546 -1.2269744 0.1818591 106 104 101
-1.9952546 -1.2078031 0.1818591 106 104 101
-1.9952546 -1.1886315 0.1818591 106 105 102
-1.9952546 -1.1694600 0.1818591 106 104 101
-1.9952546 -1.1502886 0.1818591 106 105 101
-1.9952546 -1.1311172 0.1818591 107 105 102
-1.9952546 -1.1119456 0.1818591 107 104 101
-1.9952546 -1.0927742 0.1818591 105 103 100
-1.9952546 -1.0736027 0.1818591 107 105 101
-1.9952546 -1.0544313 0.1818591 107 105 102
-1.9952546 -1.0352598 0.1818591 106 104 101
-1.9952546 -1.0160883 0.1818591 107 104 101
-1.9952546 -0.9969168 0.1818591 108 106 103
-1.9952546 -0.9777454 0.1818591 107 105 101
-1.9952546 -0.9585739 0.1818591 107 105 102
-1.9952546 -0.9394024 0.1818591 107 105 102
-1.9952546 -0.9202310 0.1818591 108 106 103
-1.9952546 -0.9010594 0.1818591 109 107 104
-1.9952546 -0.8818880 0.1818591 108 106 103
-1.9952546 -0.8627165 0.1818591 108 107 103
-1.9952546 -0.8435451 0.1818591 108 107 103
-1.9952546 -0.8243736 0.1818591 108 106 103
-1.9952546 -0.8052021 0.1818591 109 107 104
-1.9952546 -0.7860307 0.1818591 109 107 104
-1.9952546 -0.7668592 0.1818591 108 106 103
-1.9952546 -0.7476877 0.1818591 107 105 102
-1.9952546 -0.7285163 0.1818591 109 107 103
-1.9952546 -0.7093448 0.1818591 109 107 103
-1.9952546 -0.6901733 0.1818591 108 106 103
-1.9952546 -0.6710018 0.1818591 109 108 104
-1.9952546 -0.6518304 0.1818591 109 107 104
-1.9952546 -0.6326590 0.1818591 108 107 103
-1.9952546 -0.6134874 0.1818591 109 106 103
-1.9952546 -0.5943159 0.1818590 109 107 104
-1.9952546 -0.5751445 0.1818590 111 109 106
-1.9952546 -0.5559730 0.1818590 110 108 104
-1.9952546 -0.5368016 0.1818590 109 108 104
-1.9952546 -0.5176301 0.1818590 110 108 105
-1.9952546 -0.4984586 0.1818590 110 108 105
-1.9952546 -0.4792871 0.1818590 110 108 105
-1.9952546 -0.4601157 0.1818590 110 109 105
-1.9952546 -0.4409442 0.1818590 110 107 104
-1.9952546 -0.4217728 0.1818590 108 106 103
-1.9952546 -0.4026013 0.1818590 110 108 104
-0.5981442 -0.0181578 0.9338783 149 149 149
-1.9952547 0.3834290 0.1818589 110 107 104
-1.9952547 0.4026004 0.1818589 110 107 104
-1.9952547 0.4217720 0.1818589 112 110 107
-1.9952547 0.4409434 0.1818589 111 109 105
-1.9952547 0.4601149 0.1818589 110 108 105
-1.9952547 0.4792863 0.1818589 110 109 105
-1.9952547 0.4984578 0.1818589 110 108 105
-1.9952547 0.5176293 0.1818589 109 108 104
-1.9952547 0.5368007 0.1818589 111 109 106
-1.9952547 0.5559722 0.1818589 110 108 105
-1.9952547 0.5751437 0.1818589 108 106 103
-1.9952547 0.5943151 0.1818589 109 107 103
-1.9952547 0.6134866 0.1818589 110 108 105
-1.9952547 0.6326581 0.1818589 109 107 104
-1.9952547 0.6518295 0.1818589 110 107 104
-1.9952547 0.6710010 0.1818589 110 109 105
-1.9952547 0.6901725 0.1818589 109 107 104
-1.9952547 0.7093440 0.1818589 109 107 104
-1.9952547 0.7285155 0.1818588 109 107 104
-1.9952547 0.7476869 0.1818588 110 108 105
-1.9952547 0.7668583 0.1818588 110 108 105
-1.9952547 0.7860299 0.1818588 109 107 103
-1.9952547 0.8052013 0.1818588 109 107 104
-1.9952547 0.8243728 0.1818588 108 107 104
-1.9952547 0.8435443 0.1818588 108 106 103
-1.9952547 0.8627157 0.1818588 108 106 103
-1.9952547 0.8818871 0.1818588 108 107 103
-1.9952547 0.9010586 0.1818588 107 104 101
-1.9952547 0.9202302 0.1818588 106 103 100
-1.9952547 0.9394016 0.1818588 107 105 102
-1.9952547 0.9585731 0.1818588 107 105 102
-1.9952547 0.9777446 0.1818588 106 103 101
-1.9952547 0.9969160 0.1818588 107 105 102
-1.9952547 1.0160875 0.1818588 107 105 101
-1.9952547 1.0352590 0.1818588 106 104 101
-1.9952547 1.0544304 0.1818588 106 103 101
-1.9952547 1.0736019 0.1818588 106 104 101
-1.9952547 1.0927734 0.1818588 107 106 102
-1.9952547 1.1119447 0.1818588 106 104 101
-1.9952547 1.1311163 0.1818588 106 104 101
-1.9952547 1.1502878 0.1818588 106 104 101
-1.9952547 1.1694592 0.1818588 106 104 101
-1.9952547 1.1886306 0.1818588 105 104 100
-1.9952547 1.2078022 0.1818588 106 104 101
-1.9952665 -1.2325742 0.1603564 106 105 101
-1.9952665 -1.2133152 0.1603563 106 105 101
-1.9952665 -1.1940562 0.1603563 106 103 100
-1.9952665 -1.1747972 0.1603563 105 103 100
-1.9952665 -1.1555383 0.1603563 105 102 99
-1.9952666 -1.1362793 0.1603563 106 104 101
-1.9952666 -1.1170204 0.1603563 107 105 101
-1.9952666 -1.0977613 0.1603563 106 104 101
-1.9952666 -1.0785024 0.1603563 106 104 100
-1.9952666 -1.0592435 0.1603563 107 105 101
-1.9952666 -1.0399845 0.1603563 106 104 100
-1.9952666 -1.0207255 0.1603563 107 105 101
-1.9952666 -1.0014666 0.1603563 107 105 101
-1.9952666 -0.9822076 0.1603563 107 105 101
-1.9952666 -0.9629487 0.1603563 108 106 102
-1.9952666 -0.9436896 0.1603563 107 105 102
-1.9952666 -0.9244307 0.1603563 108 106 102
-1.9952666 -0.9051717 0.1603563 108 106 103
-1.9952666 -0.8859128 0.1603563 109 107 103
-1.9952666 -0.8666539 0.1603563 107 105 102
-1.9952666 -0.8473948 0.1603563 107 105 102
-1.9952666 -0.8281359 0.1603563 107 104 101
-1.9952666 -0.8088769 0.1603563 108 105 102
-1.9952666 -0.7896180 0.1603563 108 106 103
-1.9952666 -0.7703590 0.1603563 108 106 103
-1.9952666 -0.7511000 0.1603563 108 106 103
-1.9952666 -0.7318411 0.1603563 108 106 102
-1.9952666 -0.7125821 0.1603563 108 106 103
-1.9952666 -0.6933231 0.1603563 108 106 103
-1.9952666 -0.6740642 0.1603563 109 107 103
-1.9952666 -0.6548052 0.1603563 109 107 102
-1.9952666 -0.6355462 0.1603563 109 107 104
-1.9952666 -0.6162873 0.1603563 109 107 104
-1.9952666 -0.5970283 0.1603563 110 108 104
-1.9952666 -0.5777693 0.1603563 109 108 104
-1.9952666 -0.5585104 0.1603562 110 109 105
-1.9952666 -0.5392514 0.1603562 109 107 104
-1.9952666 -0.5199925 0.1603562 109 107 104
-1.9952666 -0.5007335 0.1603562 108 106 103
-1.9952666 -0.4814745 0.1603562 108 106 103
-1.9952666 -0.4622155 0.1603562 110 107 104
-1.9952666 -0.4429566 0.1603562 110 108 104
-1.9952666 -0.4236976 0.1603562 109 107 104
-1.9952666 -0.4044387 0.1603562 109 107 104
-0.5957022 -0.0182051 0.9250328 153 153 153
-1.9952667 0.3851789 0.1603561 110 108 104
-1.9952667 0.4044378 0.1603561 110 108 104
-1.9952667 0.4236968 0.1603561 110 109 105
-1.9952667 0.4429558 0.1603561 111 109 106
-1.9952667 0.4622147 0.1603561 110 108 104
-1.9952667 0.4814737 0.1603561 110 107 104
-1.9952667 0.5007327 0.1603561 109 106 103
-1.9952667 0.5199916 0.1603561 109 106 103
-1.9952667 0.5392506 0.1603561 110 108 104
-1.9952667 0.5585096 0.1603561 110 108 104
-1.9952667 0.5777685 0.1603561 110 107 104
-1.9952667 0.5970275 0.1603561 109 107 103
-1.9952667 0.6162865 0.1603561 110 108 104
-1.9952667 0.6355454 0.1603561 109 107 103
-1.9952667 0.6548044 0.1603561 110 108 104
-1.9952667 0.6740633 0.1603561 110 108 103
-1.9952667 0.6933223 0.1603561 110 108 104
-1.9952667 0.7125813 0.1603561 110 108 104
-1.9952667 0.7318403 0.1603561 110 107 104
-1.9952667 0.7510992 0.1603560 110 108 104
-1.9952667 0.7703581 0.1603560 110 108 105
-1.9952667 0.7896171 0.1603560 109 107 104
-1.9952667 0.8088761 0.1603560 108 106 103
-1.9952667 0.8281351 0.1603560 107 105 102
-1.9952667 0.8473940 0.1603560 107 104 101
-1.9952667 0.8666530 0.1603560 108 105 102
-1.9952667 0.8859119 0.1603560 108 106 102
-1.9952667 0.9051709 0.1603560 107 105 102
-1.9952667 0.9244298 0.1603560 107 105 101
-1.9952667 0.9436888 0.1603560 107 105 102
-1.9952667 0.9629478 0.1603560 106 104 100
-1.9952667 0.9822068 0.1603560 107 104 101
-1.9952667 1.0014657 0.1603560 106 104 100
-1.9952667 1.0207247 0.1603560 107 105 101
-1.9952667 1.0399837 0.1603560 107 105 101
-1.9952667 1.0592427 0.1603560 106 104 101
-1.9952667 1.0785015 0.1603560 107 105 101
-1.9952667 1.0977605 0.1603560 106 105 101
-1.9952667 1.1170196 0.1603560 107 105 102
-1.9952667 1.1362785 0.1603560 105 103 100
-1.9952667 1.1555374 0.1603560 105 103 100
-1.9952667 1.1747964 0.1603560 104 102 99
-1.9952667 1.1940554 0.1603560 105 103 100
-1.9952667 1.2133144 0.1603560 105 103 100
-1.9952785 -1.2382250 0.1386565 106 104 101
-1.9952785 -1.2188779 0.1386565 107 105 101
-1.9952785 -1.1995305 0.1386565 106 105 101
-1.9952785 -1.1801832 0.1386565 107 105 101
-1.9952785 -1.1608360 0.1386565 106 105 101
-1.9952785 -1.1414887 0.1386565 106 104 101
-1.9952785 -1.1221415 0.1386565 106 104 101
-1.9952785 -1.1027942 0.1386565 106 104 100
-1.9952785 -1.0834470 0.1386565 105 103 100
-1.9952785 -1.0640997 0.1386565 107 105 101
-1.9952785 -1.0447525 0.1386565 107 105 102
-1.9952785 -1.0254052 0.1386565 107 105 101
-1.9952785 -1.0060579 0.1386565 107 105 101
-1.9952785 -0.9867107 0.1386565 107 106 102
-1.9952785 -0.9673635 0.1386565 108 107 103
-1.9952785 -0.9480162 0.1386565 108 106 103
-1.9952785 -0.9286689 0.1386565 108 106 102
-1.9952785 -0.9093217 0.1386565 108 106 103
-1.9952785 -0.8899744 0.1386565 109 107 104
-1.9952785 -0.8706271 0.1386565 108 107 103
-1.9952785 -0.8512799 0.1386565 108 107 103
-1.9952785 -0.8319325 0.1386565 108 106 103
-1.9952785 -0.8125854 0.1386565 108 106 103
-1.9952785 -0.7932381 0.1386565 108 106 103
-1.9952785 -0.7738909 0.1386565 108 106 102
-1.9952785 -0.7545435 0.1386565 107 105 102
-1.9952785 -0.7351963 0.1386565 108 106 103
-1.9952785 -0.7158490 0.1386565 109 107 104
-1.9952785 -0.6965017 0.1386565 109 106 103
-1.9952785 -0.6771545 0.1386565 109 107 103
-1.9952785 -0.6578072 0.1386565 109 107 104
-1.9952785 -0.6384600 0.1386565 110 108 105
-1.9952785 -0.6191127 0.1386565 110 108 104
-1.9952785 -0.5997655 0.1386564 109 108 104
-1.9952785 -0.5804182 0.1386564 109 107 104
-1.9952785 -0.5610710 0.1386564 110 108 105
-1.9952785 -0.5417237 0.1386564 110 108 105
-1.9952785 -0.5223765 0.1386564 110 108 105
-1.9952785 -0.5030292 0.1386564 110 107 104
-1.9952785 -0.4836819 0.1386564 110 108 104
-1.9952785 -0.4643347 0.1386564 110 107 104
-1.9952785 -0.4449874 0.1386564 110 107 104
-1.9952785 -0.4256402 0.1386564 109 107 103
-1.9952785 -0.4062929 0.1386564 109 107 104
-0.6125412 -0.0185340 0.9054419 126 126 126
-1.9952786 0.3869448 0.1386563 111 109 105
-1.9952786 0.4062921 0.1386563 110 108 105
-1.9952786 0.4256393 0.1386563 110 109 105
-1.9952786 0.4449866 0.1386563 111 109 106
-1.9952786 0.4643338 0.1386563 111 109 105
-1.9952786 0.4836811 0.1386563 110 109 105
-1.9952786 0.5030283 0.1386563 110 108 105
-1.9952786 0.5223756 0.1386563 110 108 105
-1.9952786 0.5417229 0.1386563 110 107 104
-1.9952786 0.5610701 0.1386563 109 107 104
-1.9952786 0.5804174 0.1386563 109 107 103
-1.9952786 0.5997646 0.1386563 110 107 104
-1.9952786 0.6191119 0.1386563 110 108 104
-1.9952786 0.6384592 0.1386563 110 107 104
-1.9952786 0.6578064 0.1386563 110 108 104
-1.9952786 0.6771537 0.1386563 110 108 104
-1.9952786 0.6965009 0.1386563 110 109 105
-1.9952786 0.7158482 0.1386562 110 109 105
-1.9952786 0.7351955 0.1386562 110 108 104
-1.9952786 0.7545427 0.1386562 109 107 104
-1.9952786 0.7738900 0.1386562 110 108 104
-1.9952786 0.7932373 0.1386562 109 108 104
